ply
format ascii 1.0
element vertex 385
property double x
property double y
property double z
property uchar red
property uchar green
property uchar blue
property double nx
property double ny
property double nz
end_header
399.070297777652740 437.952115610241890 143.999987840652466 17 28 26 0.000000000000000 0.000000000000000 1.000000000000000
399.070297777652740 438.795511089265347 143.999987840652466 16 27 23 0.000000000000000 0.000000000000000 1.000000000000000
399.491866528987885 439.638906568288803 143.999987840652466 16 27 23 0.000000000000000 0.000000000000000 1.000000000000000
399.353162795305252 440.503716878592968 143.000000715255737 16 27 23 0.000000000000000 0.000000000000000 1.000000000000000
399.353162795305252 441.350406911224127 143.000000715255737 16 27 23 0.000000000000000 0.000000000000000 1.000000000000000
399.353162795305252 442.197096943855286 143.000000715255737 16 27 23 0.000000000000000 0.000000000000000 1.000000000000000
399.353162795305252 443.043787442147732 143.000000715255737 17 26 19 0.000000000000000 0.000000000000000 1.000000000000000
399.353162795305252 443.890477009117603 143.000000715255737 23 34 30 0.000000000000000 0.000000000000000 1.000000000000000
399.353162795305252 444.737166576087475 143.000000715255737 61 76 73 0.000000000000000 0.000000000000000 1.000000000000000
399.353162795305252 445.583856143057346 143.000000715255737 19 28 21 0.000000000000000 0.000000000000000 1.000000000000000
399.353162795305252 446.430545710027218 143.000000715255737 16 23 17 0.000000000000000 0.000000000000000 1.000000000000000
399.353162795305252 447.277236208319664 143.000000715255737 18 25 19 0.000000000000000 0.000000000000000 1.000000000000000
399.214459061622620 448.599985279142857 141.999983787536621 23 30 24 0.000000000000000 0.000000000000000 1.000000000000000
399.353162795305252 448.123926706612110 143.000000715255737 20 27 21 0.000000000000000 0.000000000000000 1.000000000000000
399.214459061622620 449.024977572262287 141.999983787536621 29 38 31 0.000000000000000 0.000000000000000 1.000000000000000
399.075755327939987 449.932615682482719 140.999996662139893 22 29 21 0.000000000000000 0.000000000000000 1.000000000000000
399.639317244291306 449.874962158501148 141.999983787536621 26 37 33 0.000000000000000 0.000000000000000 1.000000000000000
399.075755327939987 450.359255485236645 140.999996662139893 23 30 22 0.000000000000000 0.000000000000000 1.000000000000000
399.639317244291306 450.724945813417435 141.999983787536621 27 35 32 0.000000000000000 0.000000000000000 1.000000000000000
399.365202933549881 451.703419387340546 139.999979734420776 18 24 22 0.000000000000000 0.000000000000000 1.000000000000000
399.075755327939987 451.212534159421921 140.999996662139893 19 26 18 0.000000000000000 0.000000000000000 1.000000000000000
399.365202933549881 452.131704837083817 139.999979734420776 16 22 20 0.000000000000000 0.000000000000000 1.000000000000000
399.091088622808456 471.253064870834351 137.999975681304932 101 127 125 0.000000000000000 0.000000000000000 1.000000000000000
399.091088622808456 471.684647202491760 137.999975681304932 99 123 121 0.000000000000000 0.000000000000000 1.000000000000000
399.091088622808456 472.547808140516281 137.999975681304932 96 120 118 0.000000000000000 0.000000000000000 1.000000000000000
399.091088622808456 475.137294679880142 137.999975681304932 94 109 104 0.000000000000000 0.000000000000000 1.000000000000000
399.657947421073914 474.984095841646194 138.999992609024048 126 150 148 0.000000000000000 0.000000000000000 1.000000000000000
399.091088622808456 475.568877011537552 137.999975681304932 92 107 102 0.000000000000000 0.000000000000000 1.000000000000000
399.228145778179169 475.843963623046875 138.999992609024048 91 107 96 0.000000000000000 0.000000000000000 1.000000000000000
399.228145778179169 476.703831404447556 138.999992609024048 87 101 90 0.000000000000000 0.000000000000000 1.000000000000000
399.228145778179169 477.563699185848236 138.999992609024048 82 94 84 0.000000000000000 0.000000000000000 1.000000000000000
399.228145778179169 478.423566967248917 138.999992609024048 72 84 74 0.000000000000000 0.000000000000000 1.000000000000000
399.091088622808456 479.021528214216232 137.999975681304932 66 78 68 0.000000000000000 0.000000000000000 1.000000000000000
399.091088622808456 479.884689152240753 137.999975681304932 61 70 61 0.000000000000000 0.000000000000000 1.000000000000000
399.091088622808456 480.747853815555573 137.999975681304932 57 65 54 0.000000000000000 0.000000000000000 1.000000000000000
399.091088622808456 481.611014753580093 137.999975681304932 55 60 50 0.000000000000000 0.000000000000000 1.000000000000000
399.091088622808456 482.474175691604614 137.999975681304932 41 46 34 0.000000000000000 0.000000000000000 1.000000000000000
399.091088622808456 483.337340354919434 137.999975681304932 35 40 28 0.000000000000000 0.000000000000000 1.000000000000000
399.091088622808456 484.200501292943954 137.999975681304932 34 36 27 0.000000000000000 0.000000000000000 1.000000000000000
399.091088622808456 485.063665956258774 137.999975681304932 32 34 25 0.000000000000000 0.000000000000000 1.000000000000000
399.091088622808456 485.926826894283295 137.999975681304932 31 33 24 0.000000000000000 0.000000000000000 1.000000000000000
399.091088622808456 486.789987832307816 137.999975681304932 30 31 25 0.000000000000000 0.000000000000000 1.000000000000000
399.091088622808456 487.653152495622635 137.999975681304932 31 32 26 0.000000000000000 0.000000000000000 1.000000000000000
399.091088622808456 488.516313433647156 137.999975681304932 30 31 25 0.000000000000000 0.000000000000000 1.000000000000000
399.228145778179169 488.741984069347382 138.999992609024048 29 33 26 0.000000000000000 0.000000000000000 1.000000000000000
399.228145778179169 489.171916097402573 138.999992609024048 28 32 25 0.000000000000000 0.000000000000000 1.000000000000000
399.228145778179169 490.031787604093552 138.999992609024048 29 33 28 0.000000000000000 0.000000000000000 1.000000000000000
399.228145778179169 490.891659110784531 138.999992609024048 27 31 26 0.000000000000000 0.000000000000000 1.000000000000000
399.091088622808456 491.968968361616135 137.999975681304932 27 31 26 0.000000000000000 0.000000000000000 1.000000000000000
399.091088622808456 492.400546967983246 137.999975681304932 27 31 26 0.000000000000000 0.000000000000000 1.000000000000000
399.091088622808456 493.263707906007767 137.999975681304932 27 31 26 0.000000000000000 0.000000000000000 1.000000000000000
399.091088622808456 494.126872569322586 137.999975681304932 28 32 27 0.000000000000000 0.000000000000000 1.000000000000000
399.522533118724823 494.990033507347107 137.999975681304932 27 31 24 0.000000000000000 0.000000000000000 1.000000000000000
399.387126266956329 496.085458844900131 136.999988555908203 25 29 22 0.000000000000000 0.000000000000000 1.000000000000000
399.387126266956329 496.951912939548492 136.999988555908203 27 31 24 0.000000000000000 0.000000000000000 1.000000000000000
399.387126266956329 497.818370759487152 136.999988555908203 27 31 24 0.000000000000000 0.000000000000000 1.000000000000000
399.387126266956329 498.251599669456482 136.999988555908203 25 29 22 0.000000000000000 0.000000000000000 1.000000000000000
399.522533118724823 498.874267041683197 137.999975681304932 25 29 22 0.000000000000000 0.000000000000000 1.000000000000000
399.522533118724823 499.305849373340607 137.999975681304932 25 29 24 0.000000000000000 0.000000000000000 1.000000000000000
399.091088622808456 500.169014036655426 137.999975681304932 24 28 23 0.000000000000000 0.000000000000000 1.000000000000000
399.657947421073914 500.350204706192017 138.999992609024048 25 29 24 0.000000000000000 0.000000000000000 1.000000000000000
399.091088622808456 501.032171249389648 137.999975681304932 24 28 23 -0.849170556702700 -0.120455175581811 0.514198323903124
399.657947421073914 500.780140459537506 138.999992609024048 24 28 23 0.000000000000000 0.000000000000000 1.000000000000000
399.091088622808456 502.326918244361877 137.999975681304932 24 28 23 -0.869367917056706 0.000418836215936 0.494165204530538
399.657947421073914 501.640004515647888 138.999992609024048 24 28 23 0.000000000000000 0.000000000000000 1.000000000000000
399.091088622808456 503.190082907676697 137.999975681304932 24 28 23 -0.869954063998935 -0.000000000000000 0.493132767651609
399.657947421073914 502.499876022338867 138.999992609024048 25 29 24 0.000000000000000 0.000000000000000 1.000000000000000
399.091088622808456 503.621657788753510 137.999975681304932 24 28 23 0.000000000000000 0.000000000000000 1.000000000000000
399.657947421073914 503.359740078449249 138.999992609024048 25 29 24 0.000000000000000 0.000000000000000 1.000000000000000
399.793354272842407 503.954408168792725 139.999979734420776 25 29 24 0.000000000000000 0.000000000000000 1.000000000000000
399.091088622808456 504.484822452068329 137.999975681304932 25 29 24 0.000000000000000 0.000000000000000 1.000000000000000
399.793354272842407 504.382689893245697 139.999979734420776 24 28 23 0.000000000000000 0.000000000000000 1.000000000000000
399.091088622808456 505.347979664802551 137.999975681304932 24 28 23 0.000000000000000 0.000000000000000 1.000000000000000
399.657947421073914 505.509411394596100 138.999992609024048 24 28 23 0.000000000000000 0.000000000000000 1.000000000000000
399.091088622808456 506.211151778697968 137.999975681304932 25 29 22 0.000000000000000 0.000000000000000 1.000000000000000
399.657947421073914 505.939347147941589 138.999992609024048 24 28 23 0.000000000000000 0.000000000000000 1.000000000000000
399.091088622808456 506.642734110355377 137.999975681304932 25 29 22 0.000000000000000 0.000000000000000 1.000000000000000
399.657947421073914 506.799211204051971 138.999992609024048 25 29 24 0.000000000000000 0.000000000000000 1.000000000000000
399.091088622808456 507.505891323089600 137.999975681304932 25 29 22 0.000000000000000 0.000000000000000 1.000000000000000
399.228145778179169 508.089018464088440 138.999992609024048 25 29 22 0.000000000000000 0.000000000000000 1.000000000000000
399.793354272842407 508.237270116806030 139.999979734420776 25 29 22 -0.877499386621425 -0.410777561714195 0.247500750041619
399.228145778179169 508.518946766853333 138.999992609024048 27 28 22 0.000000000000000 0.000000000000000 1.000000000000000
399.793354272842407 509.093841016292572 139.999979734420776 25 29 22 0.000000000000000 0.000000000000000 1.000000000000000
399.228145778179169 509.378818273544312 138.999992609024048 29 30 24 0.000000000000000 0.000000000000000 1.000000000000000
399.793354272842407 509.950419366359711 139.999979734420776 27 28 22 0.000000000000000 0.000000000000000 1.000000000000000
399.228145778179169 510.238689780235291 138.999992609024048 27 28 22 0.000000000000000 0.000000000000000 1.000000000000000
399.365202933549881 510.806990265846252 139.999979734420776 27 28 22 0.000000000000000 0.000000000000000 1.000000000000000
399.365202933549881 511.235279440879822 139.999979734420776 27 28 22 0.000000000000000 0.000000000000000 1.000000000000000
399.365202933549881 512.091850340366364 139.999979734420776 29 30 24 0.000000000000000 0.000000000000000 1.000000000000000
399.365202933549881 512.948428690433502 139.999979734420776 29 30 24 0.000000000000000 0.000000000000000 1.000000000000000
399.075755327939987 513.075259923934937 140.999996662139893 31 31 25 0.000000000000000 0.000000000000000 1.000000000000000
399.075755327939987 513.501895070075989 140.999996662139893 31 31 25 0.000000000000000 0.000000000000000 1.000000000000000
399.075755327939987 514.355180263519287 140.999996662139893 31 32 26 0.000000000000000 0.000000000000000 1.000000000000000
399.075755327939987 515.208450555801392 140.999996662139893 30 34 27 0.000000000000000 0.000000000000000 1.000000000000000
399.907974004745483 401.242995113134384 146.999979019165039 118 141 135 0.000000000000000 0.000000000000000 1.000000000000000
399.907974004745483 401.659750789403915 146.999979019165039 115 138 132 0.000000000000000 0.000000000000000 1.000000000000000
399.907974004745483 402.493262141942978 146.999979019165039 66 95 94 0.000000000000000 0.000000000000000 1.000000000000000
400.046681463718414 403.451969325542450 147.999995946884155 26 62 56 0.000000000000000 0.000000000000000 1.000000000000000
400.046681463718414 404.282185658812523 147.999995946884155 18 59 52 0.000000000000000 0.000000000000000 1.000000000000000
400.046681463718414 405.112401992082596 147.999995946884155 18 59 52 0.000000000000000 0.000000000000000 1.000000000000000
400.046681463718414 405.942620187997818 147.999995946884155 19 65 56 0.000000000000000 0.000000000000000 1.000000000000000
400.046681463718414 406.772836521267891 147.999995946884155 16 62 53 0.000000000000000 0.000000000000000 1.000000000000000
399.907974004745483 407.911091521382332 146.999979019165039 16 59 51 0.000000000000000 0.000000000000000 1.000000000000000
400.046681463718414 407.603056579828262 147.999995946884155 16 59 51 0.000000000000000 0.000000000000000 1.000000000000000
399.907974004745483 408.327847197651863 146.999979019165039 17 60 52 0.000000000000000 0.000000000000000 1.000000000000000
400.187545865774155 409.477635696530342 145.999991893768311 24 79 69 0.000000000000000 0.000000000000000 1.000000000000000
399.907974004745483 409.161360412836075 146.999979019165039 21 72 63 0.000000000000000 0.000000000000000 1.000000000000000
400.187545865774155 410.314442068338394 145.999991893768311 47 90 82 0.000000000000000 0.000000000000000 1.000000000000000
400.470407158136368 411.477403193712234 144.999974966049194 88 120 113 0.000000000000000 0.000000000000000 1.000000000000000
400.187545865774155 411.151248440146446 145.999991893768311 62 98 92 0.000000000000000 0.000000000000000 1.000000000000000
400.050484985113144 411.897453889250755 144.999974966049194 56 91 83 0.000000000000000 0.000000000000000 1.000000000000000
400.050484985113144 412.737555280327797 144.999974966049194 49 84 76 0.000000000000000 0.000000000000000 1.000000000000000
400.050484985113144 413.577654808759689 144.999974966049194 44 79 69 0.000000000000000 0.000000000000000 1.000000000000000
400.050484985113144 414.417756199836731 144.999974966049194 38 75 64 0.000000000000000 0.000000000000000 1.000000000000000
400.050484985113144 415.257857590913773 144.999974966049194 36 75 64 0.000000000000000 0.000000000000000 1.000000000000000
400.050484985113144 416.097957119345665 144.999974966049194 27 66 55 0.000000000000000 0.000000000000000 1.000000000000000
400.187545865774155 417.008893042802811 145.999991893768311 25 67 57 0.000000000000000 0.000000000000000 1.000000000000000
400.187545865774155 417.845699414610863 145.999991893768311 22 66 55 0.000000000000000 0.000000000000000 1.000000000000000
400.187545865774155 418.682505786418915 145.999991893768311 22 66 55 0.000000000000000 0.000000000000000 1.000000000000000
400.187545865774155 419.519312158226967 145.999991893768311 17 64 52 0.000000000000000 0.000000000000000 1.000000000000000
400.187545865774155 420.356117598712444 145.999991893768311 16 62 53 0.000000000000000 0.000000000000000 1.000000000000000
399.907974004745483 420.830525867640972 146.999979019165039 13 61 51 0.000000000000000 0.000000000000000 1.000000000000000
399.907974004745483 421.247282475233078 146.999979019165039 13 61 51 0.000000000000000 0.000000000000000 1.000000000000000
399.907974004745483 422.080793827772141 146.999979019165039 14 62 52 0.000000000000000 0.000000000000000 1.000000000000000
400.046681463718414 422.546967342495918 147.999995946884155 13 61 51 0.000000000000000 0.000000000000000 1.000000000000000
400.046681463718414 422.962075509130955 147.999995946884155 14 60 51 0.000000000000000 0.000000000000000 1.000000000000000
400.185381472110748 423.423306494951248 148.999983072280884 14 60 51 0.000000000000000 0.000000000000000 1.000000000000000
400.185381472110748 424.250229671597481 148.999983072280884 13 54 47 0.000000000000000 0.000000000000000 1.000000000000000
400.324088931083679 424.704872481524944 150.000000000000000 15 56 49 0.000000000000000 0.000000000000000 1.000000000000000
399.912403374910355 425.116686560213566 150.000000000000000 16 59 51 0.000000000000000 0.000000000000000 1.000000000000000
399.912403374910355 425.940314717590809 150.000000000000000 14 57 49 0.000000000000000 0.000000000000000 1.000000000000000
399.912403374910355 426.763942874968052 150.000000000000000 13 59 50 0.000000000000000 0.000000000000000 1.000000000000000
399.912403374910355 427.999385576695204 150.000000000000000 11 54 46 0.000000000000000 0.000000000000000 1.000000000000000
399.912403374910355 428.823013734072447 150.000000000000000 9 51 41 0.000000000000000 0.000000000000000 1.000000000000000
400.185381472110748 430.038690045475960 148.999983072280884 11 53 43 0.000000000000000 0.000000000000000 1.000000000000000
399.912403374910355 429.646642357110977 150.000000000000000 8 47 36 0.000000000000000 0.000000000000000 1.000000000000000
400.185381472110748 430.452151168137789 148.999983072280884 12 54 44 0.000000000000000 0.000000000000000 1.000000000000000
400.185381472110748 431.279074111953378 148.999983072280884 17 61 50 0.000000000000000 0.000000000000000 1.000000000000000
400.046681463718414 432.094467282295227 147.999995946884155 19 67 57 0.000000000000000 0.000000000000000 1.000000000000000
399.907974004745483 433.333205003291368 146.999979019165039 23 74 67 0.000000000000000 0.000000000000000 1.000000000000000
400.046681463718414 432.924684546887875 147.999995946884155 20 71 64 0.000000000000000 0.000000000000000 1.000000000000000
399.907974004745483 433.749961028806865 146.999979019165039 22 75 68 0.000000000000000 0.000000000000000 1.000000000000000
400.605817735195160 434.581826647045091 145.999991893768311 22 79 73 0.000000000000000 0.000000000000000 1.000000000000000
399.907974004745483 434.583472963422537 146.999979019165039 22 75 68 0.000000000000000 0.000000000000000 1.000000000000000
400.187545865774155 435.418633047956973 145.999991893768311 20 78 69 0.000000000000000 0.000000000000000 1.000000000000000
400.050484985113144 436.680432702414691 144.999974966049194 5 46 41 0.000000000000000 0.000000000000000 1.000000000000000
400.187545865774155 436.255439361557364 145.999991893768311 19 60 55 0.000000000000000 0.000000000000000 1.000000000000000
400.050484985113144 437.100483048707247 144.999974966049194 14 34 29 0.000000000000000 0.000000000000000 1.000000000000000
399.913431555032730 437.952115610241890 143.999987840652466 17 30 27 0.000000000000000 0.000000000000000 1.000000000000000
399.913431555032730 438.795511089265347 143.999987840652466 18 29 27 0.000000000000000 0.000000000000000 1.000000000000000
399.913431555032730 439.638906568288803 143.999987840652466 17 28 24 0.000000000000000 0.000000000000000 1.000000000000000
399.913431555032730 440.482302047312260 143.999987840652466 17 28 24 0.000000000000000 0.000000000000000 1.000000000000000
399.913431555032730 441.325697060674429 143.999987840652466 17 28 24 0.000000000000000 0.000000000000000 1.000000000000000
399.913431555032730 442.169093005359173 143.999987840652466 17 28 24 0.000000000000000 0.000000000000000 1.000000000000000
399.913431555032730 443.012488484382629 143.999987840652466 19 27 24 0.000000000000000 0.000000000000000 1.000000000000000
399.913431555032730 443.855883963406086 143.999987840652466 25 38 35 0.000000000000000 0.000000000000000 1.000000000000000
399.913431555032730 444.699279442429543 143.999987840652466 55 70 67 0.000000000000000 0.000000000000000 1.000000000000000
399.913431555032730 445.542674921452999 143.999987840652466 21 29 26 0.000000000000000 0.000000000000000 1.000000000000000
400.199589729309082 446.430545710027218 143.000000715255737 18 27 20 0.000000000000000 0.000000000000000 1.000000000000000
400.199589729309082 447.277236208319664 143.000000715255737 24 33 26 0.000000000000000 0.000000000000000 1.000000000000000
400.199589729309082 448.123926706612110 143.000000715255737 22 31 24 0.000000000000000 0.000000000000000 1.000000000000000
400.199589729309082 448.970616273581982 143.000000715255737 47 58 54 0.000000000000000 0.000000000000000 1.000000000000000
400.064175426959991 449.874962158501148 141.999983787536621 31 44 43 0.000000000000000 0.000000000000000 1.000000000000000
400.064175426959991 450.724945813417435 141.999983787536621 27 38 36 0.000000000000000 0.000000000000000 1.000000000000000
400.064175426959991 451.149938106536865 141.999983787536621 16 27 25 0.000000000000000 0.000000000000000 1.000000000000000
400.087745338678360 474.554163813591003 138.999992609024048 131 157 155 0.000000000000000 0.000000000000000 1.000000000000000
400.087745338678360 474.984095841646194 138.999992609024048 132 158 156 0.000000000000000 0.000000000000000 1.000000000000000
400.087745338678360 475.843963623046875 138.999992609024048 131 157 155 0.000000000000000 0.000000000000000 1.000000000000000
400.087745338678360 476.703831404447556 138.999992609024048 132 158 156 0.000000000000000 0.000000000000000 1.000000000000000
400.087745338678360 477.563699185848236 138.999992609024048 127 153 151 0.000000000000000 0.000000000000000 1.000000000000000
400.087745338678360 478.423566967248917 138.999992609024048 126 152 150 0.000000000000000 0.000000000000000 1.000000000000000
400.087745338678360 479.283434748649597 138.999992609024048 129 155 153 0.000000000000000 0.000000000000000 1.000000000000000
400.087745338678360 480.143306255340576 138.999992609024048 129 155 153 0.000000000000000 0.000000000000000 1.000000000000000
400.087745338678360 480.573238283395767 138.999992609024048 127 153 151 0.000000000000000 0.000000000000000 1.000000000000000
400.087745338678360 481.433106064796448 138.999992609024048 127 151 149 0.000000000000000 0.000000000000000 1.000000000000000
399.953981339931488 482.474175691604614 137.999975681304932 124 146 145 0.000000000000000 0.000000000000000 1.000000000000000
400.517546981573105 482.292973846197128 138.999992609024048 131 157 155 0.000000000000000 0.000000000000000 1.000000000000000
399.953981339931488 483.337340354919434 137.999975681304932 117 139 138 0.000000000000000 0.000000000000000 1.000000000000000
399.953981339931488 484.200501292943954 137.999975681304932 119 138 138 0.000000000000000 0.000000000000000 1.000000000000000
400.517546981573105 484.012709408998489 138.999992609024048 129 155 153 0.000000000000000 0.000000000000000 1.000000000000000
399.953981339931488 485.063665956258774 137.999975681304932 113 133 130 0.000000000000000 0.000000000000000 1.000000000000000
400.087745338678360 485.302512943744659 138.999992609024048 114 132 128 0.000000000000000 0.000000000000000 1.000000000000000
400.087745338678360 485.732444971799850 138.999992609024048 110 128 124 0.000000000000000 0.000000000000000 1.000000000000000
400.087745338678360 486.592312753200531 138.999992609024048 106 121 118 0.000000000000000 0.000000000000000 1.000000000000000
400.087745338678360 487.452180534601212 138.999992609024048 103 116 111 0.000000000000000 0.000000000000000 1.000000000000000
400.087745338678360 488.312048316001892 138.999992609024048 98 110 102 0.000000000000000 0.000000000000000 1.000000000000000
400.087745338678360 489.171916097402573 138.999992609024048 95 107 99 0.000000000000000 0.000000000000000 1.000000000000000
400.087745338678360 490.031787604093552 138.999992609024048 87 99 91 0.000000000000000 0.000000000000000 1.000000000000000
400.087745338678360 490.891659110784531 138.999992609024048 73 85 77 0.000000000000000 0.000000000000000 1.000000000000000
400.087745338678360 491.751526892185211 138.999992609024048 75 87 77 0.000000000000000 0.000000000000000 1.000000000000000
400.087745338678360 492.611394673585892 138.999992609024048 63 72 63 0.000000000000000 0.000000000000000 1.000000000000000
399.953981339931488 493.263707906007767 137.999975681304932 59 68 59 0.000000000000000 0.000000000000000 1.000000000000000
400.517546981573105 493.471262454986572 138.999992609024048 102 120 116 0.000000000000000 0.000000000000000 1.000000000000000
399.953981339931488 494.126872569322586 137.999975681304932 60 68 57 0.000000000000000 0.000000000000000 1.000000000000000
399.953981339931488 494.990033507347107 137.999975681304932 45 50 40 0.000000000000000 0.000000000000000 1.000000000000000
400.385429561138153 495.853198170661926 137.999975681304932 95 107 99 0.000000000000000 0.000000000000000 1.000000000000000
400.385429561138153 496.716359108686447 137.999975681304932 83 95 87 0.000000000000000 0.000000000000000 1.000000000000000
400.385429561138153 497.579520046710968 137.999975681304932 76 88 78 0.000000000000000 0.000000000000000 1.000000000000000
399.953981339931488 498.874267041683197 137.999975681304932 27 32 22 0.000000000000000 0.000000000000000 1.000000000000000
399.953981339931488 499.305849373340607 137.999975681304932 31 35 28 0.000000000000000 0.000000000000000 1.000000000000000
400.517546981573105 499.490333199501038 138.999992609024048 64 73 64 -0.892606221697609 -0.338140262083034 0.298186680026351
399.953981339931488 500.169014036655426 137.999975681304932 27 31 24 0.000000000000000 0.000000000000000 1.000000000000000
400.087745338678360 500.350204706192017 138.999992609024048 25 29 22 0.000000000000000 0.000000000000000 1.000000000000000
400.649660676717758 500.528109669685364 139.999979734420776 53 60 52 0.000000000000000 0.000000000000000 1.000000000000000
400.087745338678360 500.780140459537506 138.999992609024048 25 29 22 0.000000000000000 0.000000000000000 1.000000000000000
400.649660676717758 500.956398844718933 139.999979734420776 47 54 46 0.000000000000000 0.000000000000000 1.000000000000000
400.087745338678360 501.640004515647888 138.999992609024048 25 29 22 0.000000000000000 0.000000000000000 1.000000000000000
400.649660676717758 501.812969744205475 139.999979734420776 40 47 39 0.000000000000000 0.000000000000000 1.000000000000000
400.087745338678360 502.499876022338867 138.999992609024048 30 31 25 0.000000000000000 0.000000000000000 1.000000000000000
400.649660676717758 502.669548094272614 139.999979734420776 33 41 30 0.000000000000000 0.000000000000000 1.000000000000000
400.087745338678360 503.359740078449249 138.999992609024048 30 31 25 0.000000000000000 0.000000000000000 1.000000000000000
400.221509337425232 503.954408168792725 139.999979734420776 29 30 24 0.000000000000000 0.000000000000000 1.000000000000000
400.221509337425232 504.382689893245697 139.999979734420776 29 30 24 0.000000000000000 0.000000000000000 1.000000000000000
400.087745338678360 505.509411394596100 138.999992609024048 29 30 24 0.000000000000000 0.000000000000000 1.000000000000000
400.649660676717758 505.239260792732239 139.999979734420776 31 33 24 0.000000000000000 0.000000000000000 1.000000000000000
400.087745338678360 505.939347147941589 138.999992609024048 29 30 26 0.000000000000000 0.000000000000000 1.000000000000000
400.649660676717758 506.095839142799377 139.999979734420776 31 33 24 0.000000000000000 0.000000000000000 1.000000000000000
400.087745338678360 506.799211204051971 138.999992609024048 27 31 26 0.000000000000000 0.000000000000000 1.000000000000000
400.649660676717758 506.952410042285919 139.999979734420776 29 30 24 0.000000000000000 0.000000000000000 1.000000000000000
400.087745338678360 507.659082710742950 138.999992609024048 27 31 26 0.000000000000000 0.000000000000000 1.000000000000000
400.221509337425232 508.237270116806030 139.999979734420776 25 29 24 -0.827083658863885 -0.462808459107497 0.318968574343734
400.355273336172104 508.382221162319183 140.999996662139893 25 29 24 0.000000000000000 0.000000000000000 1.000000000000000
400.355273336172104 509.235506355762482 140.999996662139893 25 29 24 0.000000000000000 0.000000000000000 1.000000000000000
400.355273336172104 510.088776648044586 140.999996662139893 25 29 24 0.000000000000000 0.000000000000000 1.000000000000000
400.355273336172104 510.942061841487885 140.999996662139893 25 29 22 0.000000000000000 0.000000000000000 1.000000000000000
400.355273336172104 511.795339584350586 140.999996662139893 27 31 24 0.000000000000000 0.000000000000000 1.000000000000000
399.928768575191498 512.648617327213287 140.999996662139893 29 30 24 0.000000000000000 0.000000000000000 1.000000000000000
399.928768575191498 513.501895070075989 140.999996662139893 27 28 22 0.000000000000000 0.000000000000000 1.000000000000000
399.928768575191498 514.355180263519287 140.999996662139893 27 28 22 0.000000000000000 0.000000000000000 1.000000000000000
399.928768575191498 515.208450555801392 140.999996662139893 29 30 24 0.000000000000000 0.000000000000000 1.000000000000000
400.741228312253952 401.242995113134384 146.999979019165039 122 142 137 0.000000000000000 0.000000000000000 1.000000000000000
400.741228312253952 401.659750789403915 146.999979019165039 119 139 134 0.000000000000000 0.000000000000000 1.000000000000000
400.741228312253952 402.493262141942978 146.999979019165039 73 102 99 0.000000000000000 0.000000000000000 1.000000000000000
401.157853603363037 403.326777219772339 146.999979019165039 39 69 63 0.000000000000000 0.000000000000000 1.000000000000000
400.876638889312744 403.451969325542450 147.999995946884155 33 64 60 0.000000000000000 0.000000000000000 1.000000000000000
401.157853603363037 404.160286709666252 146.999979019165039 30 67 58 0.000000000000000 0.000000000000000 1.000000000000000
400.876638889312744 404.282185658812523 147.999995946884155 22 61 52 0.000000000000000 0.000000000000000 1.000000000000000
400.876638889312744 405.112401992082596 147.999995946884155 20 61 54 0.000000000000000 0.000000000000000 1.000000000000000
400.876638889312744 405.942620187997818 147.999995946884155 21 64 56 0.000000000000000 0.000000000000000 1.000000000000000
400.741228312253952 406.660822629928589 146.999979019165039 16 62 53 0.000000000000000 0.000000000000000 1.000000000000000
400.741228312253952 407.494335845112801 146.999979019165039 15 61 52 0.000000000000000 0.000000000000000 1.000000000000000
400.741228312253952 408.327847197651863 146.999979019165039 16 62 53 0.000000000000000 0.000000000000000 1.000000000000000
401.024089604616165 409.477635696530342 145.999991893768311 43 86 80 0.000000000000000 0.000000000000000 1.000000000000000
400.741228312253952 409.161360412836075 146.999979019165039 26 74 64 0.000000000000000 0.000000000000000 1.000000000000000
401.024089604616165 410.314442068338394 145.999991893768311 94 126 119 0.000000000000000 0.000000000000000 1.000000000000000
400.890325605869293 411.477403193712234 144.999974966049194 109 139 133 0.000000000000000 0.000000000000000 1.000000000000000
401.024089604616165 411.151248440146446 145.999991893768311 109 139 133 0.000000000000000 0.000000000000000 1.000000000000000
400.890325605869293 411.897453889250755 144.999974966049194 111 138 133 0.000000000000000 0.000000000000000 1.000000000000000
400.890325605869293 412.737555280327797 144.999974966049194 105 132 127 0.000000000000000 0.000000000000000 1.000000000000000
400.890325605869293 413.577654808759689 144.999974966049194 107 134 129 0.000000000000000 0.000000000000000 1.000000000000000
400.890325605869293 414.417756199836731 144.999974966049194 102 132 126 0.000000000000000 0.000000000000000 1.000000000000000
400.890325605869293 415.257857590913773 144.999974966049194 97 127 121 0.000000000000000 0.000000000000000 1.000000000000000
400.890325605869293 416.097957119345665 144.999974966049194 95 125 119 0.000000000000000 0.000000000000000 1.000000000000000
400.890325605869293 416.938060373067856 144.999974966049194 87 117 111 0.000000000000000 0.000000000000000 1.000000000000000
401.024089604616165 417.845699414610863 145.999991893768311 82 113 109 0.000000000000000 0.000000000000000 1.000000000000000
401.024089604616165 418.682505786418915 145.999991893768311 78 113 105 0.000000000000000 0.000000000000000 1.000000000000000
401.024089604616165 419.519312158226967 145.999991893768311 68 103 95 0.000000000000000 0.000000000000000 1.000000000000000
401.024089604616165 420.356117598712444 145.999991893768311 60 95 87 0.000000000000000 0.000000000000000 1.000000000000000
400.741228312253952 421.247282475233078 146.999979019165039 22 66 55 0.000000000000000 0.000000000000000 1.000000000000000
400.741228312253952 422.080793827772141 146.999979019165039 22 66 55 0.000000000000000 0.000000000000000 1.000000000000000
400.876638889312744 422.546967342495918 147.999995946884155 21 65 54 0.000000000000000 0.000000000000000 1.000000000000000
400.876638889312744 422.962075509130955 147.999995946884155 20 62 52 0.000000000000000 0.000000000000000 1.000000000000000
401.012045741081238 423.423306494951248 148.999983072280884 19 61 51 0.000000000000000 0.000000000000000 1.000000000000000
401.012045741081238 424.250229671597481 148.999983072280884 16 58 48 0.000000000000000 0.000000000000000 1.000000000000000
400.735774487257004 424.704872481524944 150.000000000000000 13 54 47 0.000000000000000 0.000000000000000 1.000000000000000
400.735774487257004 425.116686560213566 150.000000000000000 18 59 52 0.000000000000000 0.000000000000000 1.000000000000000
400.735774487257004 425.940314717590809 150.000000000000000 16 59 51 0.000000000000000 0.000000000000000 1.000000000000000
400.735774487257004 426.763942874968052 150.000000000000000 14 57 49 0.000000000000000 0.000000000000000 1.000000000000000
400.735774487257004 427.999385576695204 150.000000000000000 9 55 46 0.000000000000000 0.000000000000000 1.000000000000000
400.735774487257004 428.823013734072447 150.000000000000000 10 56 47 0.000000000000000 0.000000000000000 1.000000000000000
401.012045741081238 430.038690045475960 148.999983072280884 21 69 61 0.000000000000000 0.000000000000000 1.000000000000000
400.735774487257004 429.646642357110977 150.000000000000000 15 61 52 0.000000000000000 0.000000000000000 1.000000000000000
401.012045741081238 430.452151168137789 148.999983072280884 19 72 63 0.000000000000000 0.000000000000000 1.000000000000000
401.012045741081238 431.279074111953378 148.999983072280884 21 74 65 0.000000000000000 0.000000000000000 1.000000000000000
400.876638889312744 432.094467282295227 147.999995946884155 17 70 63 0.000000000000000 0.000000000000000 1.000000000000000
400.741228312253952 433.333205003291368 146.999979019165039 22 75 68 0.000000000000000 0.000000000000000 1.000000000000000
400.876638889312744 432.924684546887875 147.999995946884155 17 70 63 0.000000000000000 0.000000000000000 1.000000000000000
400.741228312253952 433.749961028806865 146.999979019165039 22 77 69 0.000000000000000 0.000000000000000 1.000000000000000
401.024089604616165 434.581826647045091 145.999991893768311 22 79 73 0.000000000000000 0.000000000000000 1.000000000000000
401.024089604616165 435.418633047956973 145.999991893768311 21 78 72 0.000000000000000 0.000000000000000 1.000000000000000
400.890325605869293 436.680432702414691 144.999974966049194 7 53 48 0.000000000000000 0.000000000000000 1.000000000000000
401.024089604616165 436.255439361557364 145.999991893768311 22 68 63 0.000000000000000 0.000000000000000 1.000000000000000
400.890325605869293 437.100483048707247 144.999974966049194 12 43 39 0.000000000000000 0.000000000000000 1.000000000000000
400.756561607122421 438.373813349753618 143.999987840652466 16 39 33 0.000000000000000 0.000000000000000 1.000000000000000
400.890325605869293 437.940584206953645 144.999974966049194 16 39 33 0.000000000000000 0.000000000000000 1.000000000000000
400.756561607122421 438.795511089265347 143.999987840652466 19 39 32 0.000000000000000 0.000000000000000 1.000000000000000
400.756561607122421 439.638906568288803 143.999987840652466 28 43 38 0.000000000000000 0.000000000000000 1.000000000000000
400.756561607122421 440.482302047312260 143.999987840652466 33 45 37 0.000000000000000 0.000000000000000 1.000000000000000
400.756561607122421 441.325697060674429 143.999987840652466 28 36 25 0.000000000000000 0.000000000000000 1.000000000000000
400.756561607122421 442.169093005359173 143.999987840652466 20 29 22 0.000000000000000 0.000000000000000 1.000000000000000
400.756561607122421 443.012488484382629 143.999987840652466 20 29 22 0.000000000000000 0.000000000000000 1.000000000000000
400.756561607122421 443.855883963406086 143.999987840652466 29 42 41 0.000000000000000 0.000000000000000 1.000000000000000
400.756561607122421 444.699279442429543 143.999987840652466 36 51 50 0.000000000000000 0.000000000000000 1.000000000000000
400.756561607122421 445.542674921452999 143.999987840652466 20 31 27 0.000000000000000 0.000000000000000 1.000000000000000
400.756561607122421 446.386069469153881 143.999987840652466 20 28 25 0.000000000000000 0.000000000000000 1.000000000000000
401.046012938022614 447.700581923127174 143.000000715255737 25 36 32 0.000000000000000 0.000000000000000 1.000000000000000
400.756561607122421 447.229464948177338 143.999987840652466 24 36 28 0.000000000000000 0.000000000000000 1.000000000000000
401.046012938022614 448.123926706612110 143.000000715255737 20 31 27 0.000000000000000 0.000000000000000 1.000000000000000
401.046012938022614 448.970616273581982 143.000000715255737 31 42 40 0.000000000000000 0.000000000000000 1.000000000000000
400.913895517587662 450.299954451620579 141.999983787536621 50 63 62 0.000000000000000 0.000000000000000 1.000000000000000
401.046012938022614 449.817305840551853 143.000000715255737 43 56 55 0.000000000000000 0.000000000000000 1.000000000000000
400.913895517587662 450.724945813417435 141.999983787536621 27 38 36 0.000000000000000 0.000000000000000 1.000000000000000
400.913895517587662 451.149938106536865 141.999983787536621 17 28 26 0.000000000000000 0.000000000000000 1.000000000000000
400.913895517587662 451.999922692775726 141.999983787536621 15 23 22 0.000000000000000 0.000000000000000 1.000000000000000
400.947344899177551 474.554163813591003 138.999992609024048 134 160 158 0.000000000000000 0.000000000000000 1.000000000000000
400.947344899177551 474.984095841646194 138.999992609024048 138 162 160 0.000000000000000 0.000000000000000 1.000000000000000
400.947344899177551 475.843963623046875 138.999992609024048 137 161 159 0.000000000000000 0.000000000000000 1.000000000000000
400.947344899177551 476.703831404447556 138.999992609024048 138 162 160 0.000000000000000 0.000000000000000 1.000000000000000
400.947344899177551 477.563699185848236 138.999992609024048 138 162 160 0.000000000000000 0.000000000000000 1.000000000000000
400.947344899177551 478.423566967248917 138.999992609024048 137 161 159 0.000000000000000 0.000000000000000 1.000000000000000
400.947344899177551 479.283434748649597 138.999992609024048 137 161 159 0.000000000000000 0.000000000000000 1.000000000000000
400.947344899177551 480.143306255340576 138.999992609024048 137 161 159 0.000000000000000 0.000000000000000 1.000000000000000
400.947344899177551 480.573238283395767 138.999992609024048 136 160 158 0.000000000000000 0.000000000000000 1.000000000000000
400.947344899177551 481.433106064796448 138.999992609024048 134 160 158 0.000000000000000 0.000000000000000 1.000000000000000
400.947344899177551 482.292973846197128 138.999992609024048 134 160 158 0.000000000000000 0.000000000000000 1.000000000000000
400.816874057054520 483.337340354919434 137.999975681304932 133 159 157 0.000000000000000 0.000000000000000 1.000000000000000
400.947344899177551 484.012709408998489 138.999992609024048 132 158 156 0.000000000000000 0.000000000000000 1.000000000000000
400.947344899177551 484.872577190399170 138.999992609024048 133 159 157 0.000000000000000 0.000000000000000 1.000000000000000
400.947344899177551 485.732444971799850 138.999992609024048 136 160 158 0.000000000000000 0.000000000000000 1.000000000000000
400.947344899177551 486.592312753200531 138.999992609024048 136 161 156 0.000000000000000 0.000000000000000 1.000000000000000
400.947344899177551 487.452180534601212 138.999992609024048 137 162 157 0.000000000000000 0.000000000000000 1.000000000000000
400.947344899177551 488.312048316001892 138.999992609024048 136 160 158 0.000000000000000 0.000000000000000 1.000000000000000
400.947344899177551 489.171916097402573 138.999992609024048 133 157 155 0.000000000000000 0.000000000000000 1.000000000000000
400.947344899177551 490.031787604093552 138.999992609024048 134 158 156 0.000000000000000 0.000000000000000 1.000000000000000
400.947344899177551 490.891659110784531 138.999992609024048 133 157 155 0.000000000000000 0.000000000000000 1.000000000000000
400.947344899177551 491.751526892185211 138.999992609024048 134 158 156 0.000000000000000 0.000000000000000 1.000000000000000
400.947344899177551 492.611394673585892 138.999992609024048 134 158 156 0.000000000000000 0.000000000000000 1.000000000000000
400.947344899177551 493.471262454986572 138.999992609024048 130 154 152 0.000000000000000 0.000000000000000 1.000000000000000
400.816874057054520 494.558454900979996 137.999975681304932 129 154 149 0.000000000000000 0.000000000000000 1.000000000000000
401.377146542072296 494.331130236387253 138.999992609024048 136 160 158 0.000000000000000 0.000000000000000 1.000000000000000
400.816874057054520 494.990033507347107 137.999975681304932 125 148 144 0.000000000000000 0.000000000000000 1.000000000000000
401.377146542072296 495.190998017787933 138.999992609024048 135 159 157 0.000000000000000 0.000000000000000 1.000000000000000
400.816874057054520 495.853198170661926 137.999975681304932 126 146 143 0.000000000000000 0.000000000000000 1.000000000000000
400.816874057054520 496.716359108686447 137.999975681304932 123 143 140 0.000000000000000 0.000000000000000 1.000000000000000
400.947344899177551 497.340665608644485 138.999992609024048 117 137 134 0.000000000000000 0.000000000000000 1.000000000000000
400.947344899177551 497.770597636699677 138.999992609024048 115 135 132 0.000000000000000 0.000000000000000 1.000000000000000
400.947344899177551 498.630469143390656 138.999992609024048 109 129 124 0.000000000000000 0.000000000000000 1.000000000000000
400.816874057054520 499.305849373340607 137.999975681304932 105 125 120 0.000000000000000 0.000000000000000 1.000000000000000
401.077815741300583 499.243249595165253 139.999979734420776 110 130 125 0.000000000000000 0.000000000000000 1.000000000000000
401.077815741300583 500.099820494651794 139.999979734420776 106 121 118 0.000000000000000 0.000000000000000 1.000000000000000
401.077815741300583 500.956398844718933 139.999979734420776 100 113 108 0.000000000000000 0.000000000000000 1.000000000000000
401.077815741300583 501.812969744205475 139.999979734420776 91 102 98 0.000000000000000 0.000000000000000 1.000000000000000
401.077815741300583 502.669548094272614 139.999979734420776 87 100 95 0.000000000000000 0.000000000000000 1.000000000000000
400.781781822443008 503.262547254562378 140.999996662139893 34 39 29 -0.070023859631342 -0.913218068387132 0.401409290691691
400.781781822443008 503.689189851284027 140.999996662139893 35 40 30 -0.801108647533948 -0.354182140800460 0.482472741182683
401.077815741300583 504.382689893245697 139.999979734420776 77 86 77 0.000000000000000 0.000000000000000 1.000000000000000
401.077815741300583 505.239260792732239 139.999979734420776 69 76 68 0.000000000000000 0.000000000000000 1.000000000000000
401.077815741300583 506.095839142799377 139.999979734420776 64 71 63 0.000000000000000 0.000000000000000 1.000000000000000
401.077815741300583 506.952410042285919 139.999979734420776 59 63 56 0.000000000000000 0.000000000000000 1.000000000000000
400.781781822443008 507.955578565597534 140.999996662139893 30 31 25 0.000000000000000 0.000000000000000 1.000000000000000
400.781781822443008 508.382221162319183 140.999996662139893 29 30 24 0.000000000000000 0.000000000000000 1.000000000000000
400.781781822443008 509.235506355762482 140.999996662139893 29 30 24 0.000000000000000 0.000000000000000 1.000000000000000
400.781781822443008 510.088776648044586 140.999996662139893 29 30 24 0.000000000000000 0.000000000000000 1.000000000000000
400.781781822443008 510.942061841487885 140.999996662139893 29 30 24 0.000000000000000 0.000000000000000 1.000000000000000
400.781781822443008 511.795339584350586 140.999996662139893 27 31 24 0.000000000000000 0.000000000000000 1.000000000000000
400.781781822443008 512.648617327213287 140.999996662139893 29 30 24 0.000000000000000 0.000000000000000 1.000000000000000
400.781781822443008 513.501895070075989 140.999996662139893 27 28 22 0.000000000000000 0.000000000000000 1.000000000000000
401.574478894472122 402.076506465673447 146.999979019165039 114 139 134 0.000000000000000 0.000000000000000 1.000000000000000
401.574478894472122 402.493262141942978 146.999979019165039 102 127 122 0.000000000000000 0.000000000000000 1.000000000000000
401.574478894472122 403.326777219772339 146.999979019165039 59 89 83 0.000000000000000 0.000000000000000 1.000000000000000
401.574478894472122 404.160286709666252 146.999979019165039 48 80 73 0.000000000000000 0.000000000000000 1.000000000000000
401.706596314907074 404.697294756770134 147.999995946884155 42 77 69 0.000000000000000 0.000000000000000 1.000000000000000
401.991104185581207 404.993798062205315 146.999979019165039 74 106 99 0.000000000000000 0.000000000000000 1.000000000000000
401.706596314907074 405.112401992082596 147.999995946884155 44 79 71 0.000000000000000 0.000000000000000 1.000000000000000
401.991104185581207 405.827311277389526 146.999979019165039 67 102 94 0.000000000000000 0.000000000000000 1.000000000000000
401.706596314907074 405.942620187997818 147.999995946884155 35 70 62 0.000000000000000 0.000000000000000 1.000000000000000
401.574478894472122 406.660822629928589 146.999979019165039 33 70 61 0.000000000000000 0.000000000000000 1.000000000000000
401.574478894472122 407.494335845112801 146.999979019165039 31 70 61 0.000000000000000 0.000000000000000 1.000000000000000
401.860637068748474 409.059231579303741 145.999991893768311 55 92 81 0.000000000000000 0.000000000000000 1.000000000000000
401.574478894472122 408.327847197651863 146.999979019165039 27 66 57 0.000000000000000 0.000000000000000 1.000000000000000
401.860637068748474 409.477635696530342 145.999991893768311 72 107 97 0.000000000000000 0.000000000000000 1.000000000000000
401.574478894472122 409.161360412836075 146.999979019165039 34 76 66 0.000000000000000 0.000000000000000 1.000000000000000
401.860637068748474 410.314442068338394 145.999991893768311 107 134 127 0.000000000000000 0.000000000000000 1.000000000000000
401.730162501335144 411.477403193712234 144.999974966049194 117 142 137 0.000000000000000 0.000000000000000 1.000000000000000
401.860637068748474 411.151248440146446 145.999991893768311 119 144 139 0.000000000000000 0.000000000000000 1.000000000000000
401.730162501335144 411.897453889250755 144.999974966049194 117 142 137 0.000000000000000 0.000000000000000 1.000000000000000
401.599695384502411 413.071950376033783 143.999987840652466 118 141 137 0.940121211314863 0.195065135832127 0.279502595370183
401.730162501335144 412.737555280327797 144.999974966049194 118 141 137 0.000000000000000 0.000000000000000 1.000000000000000
401.599695384502411 413.915344923734665 143.999987840652466 118 141 137 0.921197253431038 -0.266096387278248 0.283880842869993
401.730162501335144 414.417756199836731 144.999974966049194 118 141 137 0.000000000000000 0.000000000000000 1.000000000000000
401.730162501335144 415.257857590913773 144.999974966049194 116 141 136 0.000000000000000 0.000000000000000 1.000000000000000
401.730162501335144 416.097957119345665 144.999974966049194 115 140 135 0.000000000000000 0.000000000000000 1.000000000000000
401.730162501335144 416.938060373067856 144.999974966049194 115 140 135 0.000000000000000 0.000000000000000 1.000000000000000
401.730162501335144 417.778161764144897 144.999974966049194 116 141 136 0.000000000000000 0.000000000000000 1.000000000000000
401.730162501335144 418.618263155221939 144.999974966049194 113 140 135 0.923195614421407 -0.265918981009461 0.277483248236665
